5.305,127.457,5.399,-0.463,0.887,0.004
4.773,128.477,5.404,-0.549,0.835,-0.036
4.142,129.437,5.363,-0.638,0.767,-0.066
3.408,130.319,5.287,-0.717,0.692,-0.088
2.584,131.114,5.186,-0.776,0.622,-0.103
1.691,131.83,5.068,-0.815,0.569,-0.111
0.754,132.485,4.941,-0.838,0.534,-0.114
-0.209,133.099,4.809,-0.85,0.514,-0.115
-1.187,133.691,4.676,-0.856,0.504,-0.115
-2.172,134.27,4.544,-0.859,0.5,-0.115
-3.16,134.845,4.412,0.712,-0.7,0.059
6.134,125.712,5.18,-0.345,0.932,0.116
5.745,126.765,5.31,-0.406,0.912,0.05
5.286,127.795,5.366,-0.485,0.875,0.001
4.738,128.783,5.367,-0.573,0.818,-0.037
4.09,129.707,5.326,-0.662,0.747,-0.065
3.343,130.55,5.252,-0.737,0.67,-0.087
2.51,131.307,5.154,-0.792,0.602,-0.101
1.615,131.988,5.04,-0.827,0.552,-0.109
0.681,132.611,4.916,-0.847,0.519,-0.112
-0.276,133.197,4.79,-0.859,0.5,-0.113
-1.247,133.762,4.662,-0.864,0.491,-0.113
-2.223,134.317,4.534,-0.866,0.487,-0.113
-3.201,134.868,4.407,0.728,-0.683,0.06
6.134,126.1,5.175,-0.359,0.928,0.103
5.738,127.122,5.289,-0.425,0.904,0.043
5.269,128.119,5.336,-0.507,0.862,-0.002
4.711,129.069,5.334,-0.596,0.802,-0.037
4.053,129.953,5.294,-0.683,0.727,-0.065
3.3,130.754,5.222,-0.755,0.65,-0.086
2.468,131.471,5.128,-0.806,0.584,-0.099
1.58,132.115,5.018,-0.838,0.535,-0.107
0.656,132.705,4.9,-0.856,0.504,-0.11
-0.288,133.261,4.778,-0.867,0.487,-0.111
-1.244,133.798,4.656,-0.871,0.478,-0.111
-2.205,134.325,4.533,-0.873,0.475,-0.111
-3.168,134.848,4.411,0.244,-0.958,-0.153
12.667,72.671,-5.536,-0.067,0.843,0.533
12.585,73.707,-4.881,-0.065,0.836,0.545
12.505,74.734,-4.212,-0.064,0.827,0.559
12.426,75.75,-3.525,-0.066,0.814,0.577
12.346,76.75,-2.816,-0.072,0.796,0.6
12.257,77.728,-2.079,-0.086,0.77,0.632
12.151,78.675,-1.303,-0.118,0.728,0.675
12.007,79.569,-0.473,-0.18,0.654,0.735
11.786,80.372,0.428,-0.294,0.51,0.809
11.426,80.997,1.419,-0.453,0.243,0.858
10.872,81.293,2.467,-0.556,-0.07,0.828
10.192,81.207,3.481,-0.569,-0.243,0.785
9.493,80.908,4.446,0.249,-0.57,-0.783
12.667,73.646,-5.536,-0.066,0.825,0.562
12.588,74.631,-4.865,-0.064,0.816,0.575
12.512,75.606,-4.178,-0.064,0.805,0.59
12.436,76.567,-3.473,-0.066,0.79,0.61
12.357,77.511,-2.745,-0.073,0.769,0.635
12.27,78.429,-1.987,-0.09,0.738,0.669
12.162,79.311,-1.188,-0.126,0.688,0.715
12.011,80.132,-0.334,-0.197,0.599,0.776
11.775,80.846,0.592,-0.324,0.426,0.844
11.389,81.354,1.597,-0.485,0.125,0.866
10.814,81.502,2.625,-0.565,-0.185,0.804
10.14,81.282,3.583,-0.567,-0.336,0.752
9.463,80.881,4.481,0.262,-0.511,-0.819
12.667,74.622,-5.536,-0.065,0.803,0.592
12.595,75.51,-4.88,-0.063,0.793,0.605
12.526,76.389,-4.21,-0.062,0.781,0.621
12.457,77.254,-3.523,-0.064,0.765,0.64
12.386,78.101,-2.814,-0.071,0.744,0.665
12.307,78.925,-2.078,-0.086,0.712,0.696
12.212,79.713,-1.307,-0.117,0.664,0.738
12.082,80.448,-0.49,-0.178,0.584,0.792
11.885,81.094,0.386,-0.287,0.436,0.853
11.569,81.575,1.328,-0.444,0.168,0.88
11.081,81.76,2.297,-0.555,-0.162,0.816
10.469,81.582,3.196,-0.569,-0.378,0.73
9.84,81.163,4.004,0.248,-0.488,-0.837
12.667,75.597,-5.536,-0.062,0.778,0.625
12.596,76.475,-4.83,-0.06,0.766,0.64
12.528,77.34,-4.107,-0.06,0.751,0.658
12.46,78.188,-3.365,-0.063,0.731,0.68
12.39,79.013,-2.598,-0.072,0.703,0.708
12.309,79.807,-1.799,-0.092,0.662,0.744
12.205,80.554,-0.958,-0.134,0.596,0.792
12.053,81.226,-0.065,-0.218,0.481,0.849
11.807,81.768,0.892,-0.365,0.26,0.894
11.398,82.061,1.897,-0.525,-0.092,0.846
10.809,81.957,2.845,-0.573,-0.394,0.719
10.163,81.514,3.655,-0.555,-0.526,0.644
9.536,80.92,4.382,0.278,-0.386,-0.88
12.667,76.572,-5.536,-0.059,0.749,0.66
12.6,77.412,-4.797,-0.057,0.735,0.675
12.536,78.236,-4.04,-0.056,0.718,0.694
12.474,79.041,-3.262,-0.058,0.694,0.717
12.408,79.819,-2.458,-0.068,0.661,0.747
12.333,80.56,-1.621,-0.09,0.613,0.785
12.232,81.247,-0.741,-0.136,0.537,0.832
12.08,81.849,0.191,-0.231,0.402,0.886
11.821,82.299,1.182,-0.398,0.14,0.907
11.379,82.455,2.191,-0.554,-0.248,0.795
10.762,82.179,3.075,-0.572,-0.524,0.631
10.122,81.593,3.781,-0.544,-0.628,0.556
9.512,80.889,4.404,0.288,-0.305,-0.908
12.667,77.548,-5.536,-0.055,0.717,0.695
12.605,78.35,-4.758,-0.051,0.701,0.711
12.547,79.134,-3.962,-0.049,0.68,0.731
12.492,79.895,-3.144,-0.051,0.653,0.755
12.436,80.626,-2.299,-0.059,0.616,0.785
12.37,81.315,-1.42,-0.08,0.563,0.823
12.281,81.945,-0.499,-0.127,0.479,0.869
12.138,82.48,0.472,-0.229,0.33,0.916
11.883,82.849,1.494,-0.419,0.032,0.907
11.418,82.884,2.5,-0.578,-0.386,0.719
10.777,82.456,3.297,-0.57,-0.638,0.518
10.141,81.743,3.876,-0.529,-0.727,0.439
9.549,80.931,4.367,0.293,-0.226,-0.929
12.667,78.523,-5.536,-0.049,0.68,0.731
12.61,79.305,-4.695,-0.043,0.662,0.749
12.56,80.066,-3.835,-0.039,0.638,0.769
12.515,80.799,-2.95,-0.038,0.606,0.794
12.472,81.496,-2.037,-0.043,0.564,0.825
12.422,82.144,-1.089,-0.061,0.504,0.862
12.352,82.723,-0.099,-0.106,0.413,0.904
12.23,83.198,0.94,-0.215,0.252,0.943
11.984,83.487,2.021,-0.455,-0.106,0.884
11.469,83.367,3.022,-0.612,-0.557,0.561
10.772,82.732,3.661,-0.561,-0.755,0.34
10.128,81.865,4.052,-0.506,-0.818,0.274
9.546,80.926,4.367,0.298,-0.136,-0.945
12.667,79.499,-5.536,-0.04,0.639,0.768
12.615,80.321,-4.548,-0.031,0.615,0.788
12.575,81.113,-3.535,-0.023,0.585,0.811
12.546,81.865,-2.491,-0.016,0.544,0.839
12.525,82.565,-1.412,-0.014,0.491,0.871
12.507,83.196,-0.292,-0.022,0.421,0.907
12.478,83.738,0.875,-0.047,0.33,0.943
12.418,84.162,2.087,-0.118,0.207,0.971
12.267,84.428,3.334,-0.553,-0.273,0.787
11.617,84.107,4.259,-0.649,-0.756,0.087
10.785,83.138,4.371,-0.522,-0.853,0.003
10.114,82.042,4.375,-0.453,-0.892,-0.009
9.532,80.895,4.363,0.302,-0.04,-0.953
12.667,80.474,-5.536,-0.028,0.592,0.806
12.62,81.466,-4.185,-0.009,0.556,0.831
12.604,82.399,-2.793,0.013,0.509,0.86
12.626,83.252,-1.351,0.044,0.451,0.892
12.7,84.008,0.144,0.116,0.402,0.908
12.895,84.681,1.665,0.389,0.45,0.804
13.539,85.426,2.997,0.767,0.472,0.434
14.816,86.212,3.72,0.897,0.373,0.236
16.319,86.836,4.116,0.943,0.287,0.168
17.899,87.318,4.397,0.963,0.23,0.139
19.513,87.704,4.631,0.972,0.197,0.127
21.143,88.034,4.844,0.976,0.182,0.123
22.779,88.339,5.051,-0.625,-0.426,-0.654
12.667,81.45,-5.536,-0.015,0.545,0.838
12.643,82.319,-4.2,0.011,0.511,0.859
12.66,83.133,-2.83,0.047,0.47,0.882
12.734,83.882,-1.425,0.106,0.425,0.899
12.903,84.56,0.007,0.238,0.403,0.884
13.282,85.201,1.414,0.525,0.429,0.735
14.112,85.88,2.576,0.789,0.404,0.463
15.366,86.521,3.311,0.895,0.326,0.303
16.792,87.04,3.794,0.937,0.258,0.234
18.286,87.452,4.166,0.956,0.212,0.202
19.81,87.79,4.488,0.965,0.184,0.188
21.348,88.083,4.788,0.968,0.172,0.183
22.891,88.358,5.08,-0.643,-0.373,-0.668
12.667,82.425,-5.536,0.0,0.495,0.869
12.666,83.172,-4.225,0.032,0.464,0.886
12.715,83.871,-2.89,0.081,0.427,0.901
12.837,84.516,-1.531,0.163,0.393,0.905
13.082,85.108,-0.166,0.32,0.377,0.869
13.564,85.675,1.142,0.578,0.382,0.722
14.431,86.248,2.225,0.79,0.349,0.504
15.619,86.774,2.983,0.888,0.287,0.36
16.958,87.206,3.525,0.93,0.231,0.288
18.36,87.554,3.959,0.949,0.19,0.252
19.791,87.841,4.34,0.958,0.165,0.236
21.236,88.09,4.696,0.961,0.153,0.23
22.685,88.321,5.043,-0.651,-0.32,-0.688
12.667,83.401,-5.536,0.016,0.441,0.897
12.69,84.046,-4.225,0.056,0.411,0.91
12.772,84.646,-2.896,0.118,0.378,0.918
12.945,85.199,-1.555,0.221,0.349,0.911
13.267,85.709,-0.226,0.397,0.335,0.855
13.845,86.197,1.02,0.63,0.326,0.705
14.762,86.671,2.047,0.804,0.29,0.519
15.935,87.094,2.803,0.888,0.238,0.393
17.233,87.441,3.377,0.926,0.191,0.325
18.586,87.72,3.851,0.944,0.157,0.29
19.966,87.949,4.274,0.952,0.135,0.273
21.357,88.146,4.674,0.955,0.125,0.267
22.753,88.329,5.064,-0.665,-0.261,-0.699
12.667,84.376,-5.536,0.031,0.384,0.923
12.71,84.909,-4.257,0.078,0.356,0.931
12.818,85.402,-2.965,0.148,0.326,0.933
13.023,85.855,-1.671,0.259,0.3,0.918
13.383,86.271,-0.4,0.431,0.283,0.857
13.979,86.662,0.786,0.638,0.268,0.722
14.861,87.033,1.785,0.796,0.237,0.557
15.963,87.361,2.556,0.879,0.195,0.436
17.181,87.631,3.16,0.918,0.155,0.364
18.455,87.846,3.665,0.937,0.124,0.325
19.754,88.018,4.116,0.946,0.104,0.306
21.067,88.162,4.54,0.95,0.093,0.298
22.384,88.29,4.953,-0.666,-0.201,-0.719
12.667,85.352,-5.536,0.047,0.322,0.945
12.731,85.799,-4.224,0.102,0.294,0.95
12.873,86.208,-2.905,0.185,0.266,0.946
13.13,86.577,-1.592,0.314,0.24,0.919
13.565,86.91,-0.318,0.495,0.221,0.84
14.251,87.216,0.846,0.686,0.202,0.699
15.202,87.496,1.813,0.819,0.171,0.548
16.337,87.732,2.573,0.888,0.134,0.44
17.57,87.919,3.183,0.921,0.101,0.377
18.848,88.059,3.706,0.936,0.076,0.342
20.148,88.165,4.181,0.944,0.06,0.325
21.458,88.249,4.633,0.946,0.053,0.319
22.771,88.322,5.076,-0.683,-0.135,-0.718
12.667,86.327,-5.536,0.059,0.257,0.965
12.747,86.675,-4.23,0.119,0.23,0.966
12.908,86.987,-2.922,0.209,0.202,0.957
13.192,87.261,-1.627,0.342,0.178,0.923
13.655,87.501,-0.379,0.518,0.157,0.841
14.355,87.714,0.757,0.695,0.137,0.705
15.294,87.9,1.71,0.818,0.111,0.564
16.402,88.05,2.473,0.884,0.081,0.459
17.599,88.16,3.095,0.917,0.054,0.396
18.841,88.233,3.631,0.932,0.032,0.36
20.103,88.277,4.118,0.939,0.018,0.342
21.375,88.301,4.582,0.942,0.011,0.335
22.651,88.315,5.036,-0.685,-0.069,-0.725
12.667,87.302,-5.536,0.069,0.188,0.98
12.761,87.558,-4.205,0.135,0.161,0.978
12.944,87.777,-2.878,0.233,0.134,0.963
13.26,87.959,-1.57,0.373,0.109,0.921
13.766,88.107,-0.32,0.549,0.089,0.831
14.51,88.227,0.807,0.716,0.07,0.694
15.482,88.322,1.748,0.828,0.047,0.558
16.606,88.386,2.506,0.888,0.023,0.46
17.811,88.417,3.13,0.917,0.0,0.4
19.056,88.417,3.673,0.93,-0.018,0.367
20.32,88.393,4.171,0.936,-0.029,0.35
21.592,88.354,4.647,0.939,-0.036,0.343
22.867,88.304,5.113,-0.692,-0.002,-0.722
12.667,88.278,-5.536,0.075,0.117,0.99
12.767,88.435,-4.208,0.143,0.09,0.986
12.959,88.556,-2.886,0.242,0.064,0.968
13.283,88.642,-1.588,0.382,0.04,0.923
13.795,88.696,-0.35,0.553,0.021,0.833
14.536,88.724,0.765,0.714,0.005,0.7
15.493,88.73,1.702,0.824,-0.013,0.566
16.598,88.713,2.461,0.883,-0.032,0.468
17.782,88.669,3.088,0.912,-0.05,0.406
19.007,88.602,3.633,0.926,-0.065,0.372
20.249,88.514,4.132,0.932,-0.075,0.354
21.5,88.413,4.607,0.934,-0.08,0.348
22.753,88.306,5.074,-0.688,0.065,-0.723
12.667,89.253,-5.536,0.076,0.045,0.996
12.768,89.313,-4.206,0.145,0.018,0.989
12.962,89.337,-2.885,0.245,-0.008,0.97
13.288,89.327,-1.591,0.383,-0.03,0.923
13.799,89.287,-0.36,0.551,-0.047,0.833
14.533,89.224,0.751,0.709,-0.061,0.702
15.479,89.143,1.687,0.819,-0.073,0.57
16.571,89.045,2.447,0.879,-0.087,0.469
17.744,88.928,3.074,0.908,-0.101,0.406
18.956,88.793,3.616,0.922,-0.113,0.37
20.188,88.643,4.111,0.928,-0.122,0.352
21.427,88.48,4.581,0.93,-0.126,0.345
22.669,88.312,5.042,-0.681,0.131,-0.72
12.667,90.229,-5.536,0.074,-0.028,0.997
12.766,90.191,-4.195,0.142,-0.055,0.988
12.957,90.117,-2.866,0.241,-0.079,0.967
13.282,90.01,-1.565,0.378,-0.1,0.92
13.79,89.875,-0.329,0.545,-0.115,0.83
14.523,89.72,0.786,0.704,-0.125,0.699
15.468,89.553,1.725,0.815,-0.133,0.565
16.563,89.374,2.484,0.875,-0.142,0.463
17.74,89.183,3.106,0.905,-0.152,0.399
18.957,88.979,3.642,0.918,-0.16,0.362
20.192,88.763,4.13,0.924,-0.167,0.344
21.435,88.539,4.593,0.926,-0.171,0.337
22.681,88.309,5.047,-0.674,0.195,-0.712
12.667,91.204,-5.536,0.068,-0.101,0.993
12.76,91.065,-4.166,0.136,-0.127,0.983
12.948,90.89,-2.811,0.235,-0.151,0.96
13.271,90.682,-1.486,0.373,-0.17,0.912
13.785,90.449,-0.229,0.542,-0.182,0.821
14.532,90.198,0.901,0.704,-0.188,0.685
15.502,89.939,1.845,0.815,-0.191,0.547
16.625,89.677,2.599,0.875,-0.195,0.444
17.832,89.408,3.212,0.903,-0.2,0.381
19.077,89.131,3.738,0.915,-0.206,0.346
20.34,88.847,4.216,0.92,-0.211,0.33
21.61,88.555,4.67,0.922,-0.214,0.324
22.882,88.26,5.117,-0.669,0.257,-0.698
12.667,92.18,-5.536,0.058,-0.171,0.984
12.747,91.944,-4.173,0.122,-0.196,0.973
12.916,91.672,-2.826,0.214,-0.218,0.952
13.213,91.371,-1.507,0.345,-0.235,0.909
13.69,91.046,-0.25,0.511,-0.245,0.824
14.396,90.707,0.89,0.678,-0.248,0.692
15.333,90.364,1.847,0.799,-0.245,0.549
16.439,90.025,2.607,0.865,-0.244,0.438
17.637,89.687,3.214,0.896,-0.245,0.37
18.879,89.348,3.726,0.91,-0.248,0.332
20.139,89.005,4.186,0.916,-0.251,0.313
21.408,88.657,4.621,0.918,-0.253,0.306
22.679,88.306,5.045,-0.652,0.316,-0.689
12.667,93.155,-5.536,0.047,-0.238,0.97
12.732,92.819,-4.164,0.106,-0.262,0.959
12.883,92.449,-2.808,0.193,-0.282,0.94
13.155,92.05,-1.48,0.318,-0.297,0.9
13.604,91.63,-0.208,0.482,-0.305,0.821
14.284,91.198,0.952,0.656,-0.305,0.691
15.209,90.768,1.927,0.787,-0.298,0.54
16.321,90.348,2.69,0.859,-0.29,0.422
17.534,89.937,3.287,0.892,-0.286,0.35
18.795,89.532,3.782,0.906,-0.286,0.311
20.077,89.128,4.222,0.912,-0.288,0.292
21.367,88.72,4.635,0.914,-0.29,0.285
22.659,88.311,5.038,-0.638,0.371,-0.675
12.667,94.131,-5.536,0.034,-0.302,0.953
12.716,93.692,-4.151,0.089,-0.324,0.942
12.845,93.221,-2.782,0.169,-0.343,0.924
13.091,92.723,-1.44,0.287,-0.356,0.889
13.507,92.206,-0.148,0.448,-0.362,0.817
14.157,91.68,1.038,0.63,-0.359,0.688
15.071,91.16,2.036,0.774,-0.347,0.529
16.195,90.656,2.805,0.853,-0.333,0.402
17.434,90.173,3.389,0.888,-0.324,0.326
18.725,89.702,3.862,0.903,-0.321,0.286
20.038,89.236,4.278,0.909,-0.321,0.267
21.359,88.77,4.666,0.91,-0.322,0.26
22.682,88.302,5.044,-0.623,0.423,-0.658
12.667,95.106,-5.536,0.021,-0.362,0.932
12.698,94.562,-4.136,0.071,-0.383,0.921
12.804,93.987,-2.753,0.144,-0.399,0.906
13.021,93.388,-1.393,0.254,-0.41,0.876
13.401,92.773,-0.077,0.411,-0.414,0.812
14.017,92.151,1.141,0.601,-0.41,0.686
14.917,91.538,2.169,0.761,-0.392,0.517
16.058,90.949,2.945,0.848,-0.372,0.379
17.33,90.391,3.514,0.885,-0.357,0.298
18.66,89.855,3.961,0.9,-0.351,0.258
20.013,89.328,4.349,0.906,-0.349,0.239
21.374,88.804,4.708,0.908,-0.349,0.233
22.738,88.28,5.057,-0.608,0.471,-0.639
12.667,96.082,-5.536,0.008,-0.42,0.908
12.679,95.43,-4.126,0.053,-0.437,0.898
12.761,94.75,-2.731,0.119,-0.45,0.885
12.945,94.051,-1.356,0.218,-0.459,0.861
13.284,93.339,-0.018,0.367,-0.462,0.808
13.853,92.622,1.235,0.563,-0.456,0.689
14.724,91.915,2.303,0.742,-0.435,0.509
15.875,91.24,3.093,0.841,-0.407,0.356
17.181,90.609,3.645,0.882,-0.386,0.269
18.552,90.009,4.064,0.898,-0.376,0.228
19.948,89.425,4.418,0.904,-0.372,0.21
21.353,88.846,4.743,0.906,-0.372,0.203
22.76,88.268,5.06,-0.591,0.515,-0.621
12.667,97.057,-5.536,-0.004,-0.474,0.88
12.661,96.309,-4.148,0.034,-0.487,0.873
12.715,95.541,-2.773,0.09,-0.496,0.863
12.857,94.759,-1.412,0.175,-0.502,0.847
13.133,93.968,-0.078,0.304,-0.504,0.808
13.612,93.174,1.195,0.492,-0.5,0.713
14.385,92.387,2.315,0.696,-0.48,0.534
15.478,91.633,3.155,0.822,-0.444,0.355
16.773,90.933,3.715,0.875,-0.415,0.251
18.151,90.279,4.11,0.895,-0.399,0.202
19.561,89.651,4.429,0.902,-0.392,0.181
20.983,89.033,4.715,0.904,-0.39,0.174
22.408,88.417,4.989,-0.564,0.557,-0.61
12.667,98.033,-5.536,-0.013,-0.528,0.849
12.645,97.155,-4.124,0.021,-0.534,0.845
12.68,96.267,-2.719,0.071,-0.539,0.839
12.798,95.371,-1.323,0.148,-0.542,0.828
13.043,94.47,0.052,0.269,-0.541,0.797
13.489,93.571,1.376,0.458,-0.537,0.708
14.249,92.681,2.55,0.684,-0.515,0.517
15.381,91.828,3.407,0.824,-0.47,0.318
16.749,91.048,3.935,0.876,-0.433,0.211
18.206,90.328,4.285,0.895,-0.414,0.166
19.694,89.64,4.561,0.902,-0.406,0.148
21.194,88.965,4.806,0.904,-0.404,0.142
22.696,88.293,5.042,-0.554,0.592,-0.585
12.667,99.008,-5.536,-0.02,-0.58,0.815
12.633,98.022,-4.151,0.008,-0.578,0.816
12.646,97.039,-2.764,0.049,-0.577,0.815
12.729,96.058,-1.377,0.113,-0.576,0.809
12.921,95.078,-0.002,0.214,-0.574,0.79
13.285,94.102,1.341,0.381,-0.57,0.728
13.932,93.136,2.577,0.621,-0.554,0.554
14.983,92.198,3.514,0.802,-0.504,0.322
16.343,91.344,4.06,0.87,-0.455,0.19
17.822,90.569,4.383,0.893,-0.429,0.137
19.34,89.84,4.617,0.901,-0.418,0.117
20.872,89.129,4.816,0.903,-0.415,0.111
22.408,88.424,5.005,-0.529,0.627,-0.572
12.667,99.983,-5.536,-0.024,-0.631,0.775
12.624,98.862,-4.16,-0.002,-0.62,0.785
12.622,97.762,-2.766,0.033,-0.611,0.791
12.681,96.676,-1.362,0.088,-0.607,0.79
12.838,95.598,0.04,0.176,-0.602,0.778
13.151,94.529,1.421,0.327,-0.596,0.733
13.73,93.473,2.721,0.578,-0.585,0.569
14.75,92.441,3.726,0.792,-0.529,0.305
16.152,91.504,4.265,0.869,-0.47,0.156
17.694,90.67,4.543,0.893,-0.438,0.103
19.28,89.893,4.726,0.901,-0.425,0.085
20.88,89.138,4.878,0.903,-0.421,0.08
22.484,88.39,5.02,-0.513,0.657,-0.552
12.667,100.959,-5.536,-0.024,-0.683,0.73
12.622,99.678,-4.167,-0.008,-0.658,0.753
12.607,98.444,-2.756,0.022,-0.642,0.766
12.647,97.24,-1.318,0.07,-0.634,0.77
12.779,96.052,0.126,0.148,-0.627,0.765
13.056,94.878,1.56,0.285,-0.617,0.733
13.591,93.722,2.932,0.547,-0.61,0.573
14.609,92.587,3.999,0.793,-0.546,0.271
16.09,91.567,4.506,0.872,-0.476,0.115
17.724,90.675,4.721,0.895,-0.441,0.068
19.402,89.847,4.848,0.902,-0.428,0.054
21.093,89.045,4.948,0.904,-0.425,0.05
22.788,88.248,5.042,-0.505,0.683,-0.528
12.667,101.934,-5.536,-0.021,-0.734,0.678
12.626,100.504,-4.215,-0.011,-0.695,0.719
12.604,99.15,-2.816,0.011,-0.67,0.742
12.626,97.846,-1.37,0.051,-0.657,0.752
12.726,96.566,0.094,0.117,-0.648,0.752
12.954,95.303,1.559,0.231,-0.635,0.737
13.403,94.067,2.992,0.476,-0.632,0.612
14.323,92.847,4.175,0.773,-0.572,0.274
15.819,91.739,4.705,0.869,-0.487,0.086
17.511,90.792,4.873,0.894,-0.446,0.037
19.253,89.924,4.945,0.902,-0.43,0.025
21.01,89.086,4.994,0.904,-0.426,0.022
22.771,88.256,5.037,-0.488,0.708,-0.511
12.667,102.91,-5.536,-0.013,-0.785,0.619
12.641,101.328,-4.288,-0.012,-0.732,0.682
12.617,99.853,-2.914,0.003,-0.695,0.719
12.623,98.452,-1.465,0.036,-0.678,0.734
12.696,97.085,0.015,0.091,-0.668,0.739
12.879,95.739,1.504,0.183,-0.652,0.736
13.248,94.426,2.987,0.391,-0.646,0.656
14.031,93.132,4.3,0.74,-0.602,0.299
15.508,91.93,4.896,0.865,-0.498,0.062
17.25,90.926,5.021,0.893,-0.449,0.01
19.051,90.02,5.041,0.902,-0.431,-0.001
20.87,89.152,5.039,0.905,-0.426,-0.003
22.694,88.292,5.034,-0.47,0.731,-0.495
12.667,103.885,-5.536,0.001,-0.834,0.552
12.668,102.146,-4.383,-0.009,-0.767,0.641
12.648,100.545,-3.045,-0.002,-0.719,0.695
12.645,99.044,-1.594,0.024,-0.696,0.718
12.696,97.591,-0.096,0.071,-0.685,0.726
12.844,96.162,1.418,0.146,-0.667,0.73
13.148,94.769,2.942,0.313,-0.655,0.688
13.799,93.406,4.372,0.697,-0.632,0.339
15.231,92.108,5.069,0.859,-0.51,0.043
17.023,91.044,5.158,0.892,-0.452,-0.013
18.884,90.1,5.129,0.902,-0.431,-0.022
20.767,89.2,5.082,0.904,-0.426,-0.023
22.656,88.31,5.034,-0.453,0.751,-0.48
12.667,104.861,-5.536,0.022,-0.878,0.477
12.714,102.959,-4.502,-0.003,-0.803,0.596
12.707,101.22,-3.212,-0.004,-0.742,0.67
12.699,99.612,-1.76,0.016,-0.711,0.703
12.733,98.071,-0.237,0.056,-0.699,0.713
12.855,96.556,1.308,0.121,-0.682,0.721
13.116,95.078,2.869,0.257,-0.665,0.702
13.671,93.641,4.386,0.652,-0.657,0.378
15.054,92.247,5.188,0.853,-0.521,0.03
16.9,91.121,5.253,0.89,-0.455,-0.029
18.828,90.134,5.189,0.901,-0.433,-0.037
20.781,89.197,5.11,0.904,-0.427,-0.037
22.738,88.271,5.03,-0.441,0.769,-0.463
12.667,105.836,-5.536,0.055,-0.918,0.392
12.789,103.795,-4.666,0.008,-0.842,0.539
12.807,101.924,-3.467,-0.003,-0.767,0.641
12.801,100.217,-2.04,0.009,-0.726,0.688
12.821,98.603,-0.51,0.043,-0.711,0.702
12.916,97.021,1.052,0.101,-0.698,0.709
13.14,95.468,2.629,0.212,-0.68,0.702
13.611,93.958,4.19,0.578,-0.684,0.446
14.869,92.472,5.159,0.839,-0.543,0.047
16.73,91.267,5.263,0.884,-0.466,-0.029
18.698,90.23,5.199,0.897,-0.439,-0.038
20.695,89.252,5.116,0.901,-0.433,-0.038
22.699,88.289,5.032,-0.426,0.786,-0.448
12.667,106.812,-5.536,0.11,-0.951,0.288
12.916,104.655,-4.883,0.027,-0.886,0.463
12.977,102.647,-3.834,0.001,-0.798,0.602
12.98,100.835,-2.468,0.005,-0.74,0.672
12.991,99.154,-0.941,0.033,-0.719,0.694
13.065,97.522,0.635,0.087,-0.711,0.698
13.263,95.908,2.22,0.191,-0.699,0.689
13.697,94.322,3.782,0.508,-0.704,0.495
14.832,92.75,4.888,0.811,-0.576,0.102
16.667,91.446,5.118,0.874,-0.487,-0.002
18.65,90.341,5.114,0.89,-0.456,-0.017
20.67,89.306,5.075,0.894,-0.448,-0.019
22.7,88.288,5.033,-0.412,0.801,-0.434
12.667,107.787,-5.536,0.204,-0.968,0.147
13.135,105.563,-5.199,0.062,-0.939,0.339
13.277,103.407,-4.42,0.01,-0.844,0.537
13.299,101.467,-3.186,0.002,-0.76,0.65
13.304,99.718,-1.689,0.024,-0.722,0.692
13.36,98.056,-0.096,0.078,-0.714,0.695
13.539,96.411,1.505,0.184,-0.714,0.676
13.963,94.769,3.059,0.45,-0.717,0.532
14.988,93.133,4.272,0.758,-0.62,0.202
16.726,91.712,4.736,0.849,-0.524,0.065
18.681,90.505,4.885,0.872,-0.488,0.036
20.689,89.381,4.967,0.878,-0.478,0.03
22.711,88.28,5.036,-0.399,0.815,-0.42
12.667,108.763,-5.536,0.368,-0.927,-0.076
13.531,106.584,-5.715,0.136,-0.984,0.112
13.85,104.274,-5.454,0.024,-0.909,0.415
13.907,102.136,-4.478,-0.002,-0.794,0.608
13.901,100.266,-3.045,0.013,-0.72,0.693
13.931,98.566,-1.409,0.065,-0.7,0.712
14.085,96.916,0.27,0.175,-0.706,0.687
14.496,95.253,1.889,0.397,-0.713,0.578
15.429,93.579,3.244,0.675,-0.656,0.337
17.015,92.039,4.035,0.799,-0.574,0.181
18.898,90.686,4.462,0.834,-0.535,0.133
20.866,89.423,4.777,0.843,-0.524,0.122
22.854,88.186,5.064,-0.39,0.826,-0.406
12.667,109.738,-5.536,0.611,-0.698,-0.374
14.155,108.037,-6.447,0.389,-0.883,-0.263
15.093,105.906,-7.082,0.094,-0.97,0.222
15.323,103.542,-6.541,-0.014,-0.866,0.5
15.289,101.422,-5.316,-0.022,-0.752,0.659
15.234,99.578,-3.698,0.013,-0.685,0.729
15.267,97.897,-1.91,0.099,-0.676,0.73
15.509,96.238,-0.118,0.261,-0.696,0.669
16.148,94.534,1.521,0.494,-0.694,0.524
17.356,92.836,2.802,0.668,-0.648,0.365
18.995,91.247,3.698,0.739,-0.609,0.286
20.81,89.751,4.401,0.76,-0.595,0.262
22.676,88.291,5.044,-0.374,0.839,-0.396
12.667,110.713,-5.536,0.815,-0.392,-0.427
13.773,110.181,-6.116,0.749,-0.267,-0.607
14.797,109.816,-6.945,0.852,-0.175,-0.494
15.957,109.579,-7.618,0.994,0.053,-0.097
17.297,109.649,-7.749,0.886,0.334,0.321
18.501,110.104,-7.313,0.721,0.436,0.539
19.486,110.699,-6.577,0.615,0.43,0.66
20.327,111.287,-5.674,0.559,0.4,0.727
21.091,111.834,-4.68,0.544,0.378,0.749
21.836,112.352,-3.655,0.563,0.371,0.739
22.606,112.86,-2.644,0.592,0.371,0.716
23.416,113.367,-1.665,0.612,0.37,0.699
24.253,113.873,-0.708,-0.909,-0.171,-0.379
12.667,111.689,-5.536,0.884,-0.172,-0.436
13.78,111.473,-6.085,0.808,-0.068,-0.586
14.805,111.387,-6.828,0.881,0.021,-0.474
15.918,111.413,-7.427,0.981,0.143,-0.132
17.151,111.594,-7.592,0.931,0.242,0.273
18.325,111.899,-7.248,0.799,0.266,0.539
19.337,112.236,-6.566,0.686,0.247,0.684
20.206,112.549,-5.699,0.615,0.222,0.757
20.986,112.831,-4.739,0.59,0.205,0.781
21.734,113.091,-3.748,0.601,0.197,0.775
22.496,113.34,-2.765,0.626,0.194,0.755
23.29,113.586,-1.808,0.646,0.192,0.739
24.11,113.83,-0.87,-0.922,-0.094,-0.376
12.667,112.664,-5.536,0.905,-0.029,-0.424
13.813,112.628,-6.073,0.829,0.016,-0.558
14.869,112.648,-6.783,0.896,0.059,-0.439
16.006,112.723,-7.341,0.989,0.112,-0.1
17.255,112.864,-7.467,0.942,0.142,0.303
18.448,113.044,-7.084,0.81,0.135,0.571
19.476,113.215,-6.359,0.693,0.115,0.712
20.358,113.361,-5.454,0.625,0.097,0.775
21.153,113.485,-4.468,0.607,0.086,0.79
21.926,113.594,-3.463,0.623,0.08,0.778
22.719,113.696,-2.472,0.648,0.076,0.758
23.543,113.792,-1.507,0.663,0.074,0.745
24.387,113.886,-0.559,-0.92,-0.019,-0.391
12.667,113.64,-5.536,0.91,0.072,-0.409
13.813,113.731,-6.051,0.836,0.056,-0.546
14.872,113.801,-6.743,0.899,0.055,-0.434
16.008,113.87,-7.291,0.993,0.053,-0.104
17.256,113.937,-7.422,0.953,0.037,0.301
18.456,113.983,-7.044,0.818,0.016,0.575
19.489,114.004,-6.317,0.698,0.0,0.716
20.373,114.004,-5.411,0.629,-0.01,0.777
21.169,113.992,-4.427,0.611,-0.017,0.791
21.944,113.97,-3.425,0.627,-0.024,0.778
22.738,113.94,-2.44,0.652,-0.029,0.758
23.564,113.903,-1.48,0.666,-0.031,0.745
24.408,113.864,-0.537,-0.918,0.059,-0.391
12.667,114.615,-5.536,0.902,0.166,-0.399
13.807,114.825,-6.041,0.831,0.093,-0.549
14.864,114.944,-6.739,0.894,0.051,-0.444
15.998,115.009,-7.303,0.994,-0.002,-0.113
17.252,115.006,-7.445,0.952,-0.065,0.299
18.456,114.924,-7.067,0.813,-0.102,0.573
19.488,114.795,-6.341,0.692,-0.113,0.713
20.368,114.651,-5.435,0.623,-0.116,0.774
21.16,114.503,-4.451,0.605,-0.121,0.787
21.929,114.35,-3.45,0.621,-0.127,0.774
22.718,114.188,-2.466,0.645,-0.133,0.752
23.539,114.018,-1.509,0.66,-0.137,0.739
24.378,113.845,-0.569,-0.912,0.136,-0.387
12.667,115.591,-5.536,0.876,0.284,-0.389
13.782,115.952,-6.031,0.809,0.162,-0.565
14.818,116.159,-6.754,0.876,0.086,-0.475
15.937,116.268,-7.36,0.989,-0.024,-0.143
17.193,116.238,-7.542,0.947,-0.154,0.28
18.398,116.042,-7.185,0.801,-0.223,0.555
19.421,115.756,-6.476,0.679,-0.238,0.695
20.29,115.451,-5.587,0.607,-0.236,0.759
21.067,115.149,-4.615,0.585,-0.236,0.776
21.817,114.848,-3.621,0.598,-0.242,0.764
22.582,114.537,-2.643,0.623,-0.25,0.741
23.381,114.217,-1.694,0.641,-0.255,0.724
24.201,113.89,-0.766,-0.904,0.21,-0.374
12.667,116.566,-5.536,0.814,0.447,-0.37
13.787,117.181,-6.045,0.756,0.306,-0.579
14.834,117.605,-6.847,0.84,0.234,-0.49
15.995,117.929,-7.524,0.991,0.072,-0.115
17.35,118.027,-7.681,0.916,-0.217,0.338
18.608,117.729,-7.216,0.729,-0.376,0.572
19.617,117.208,-6.425,0.608,-0.408,0.681
20.459,116.642,-5.481,0.549,-0.404,0.732
21.22,116.082,-4.465,0.539,-0.403,0.74
21.967,115.523,-3.439,0.559,-0.413,0.719
22.743,114.95,-2.443,0.587,-0.423,0.69
23.557,114.363,-1.486,0.606,-0.428,0.671
24.397,113.769,-0.556,-0.883,0.284,-0.375
12.667,117.542,-5.536,0.671,0.651,-0.356
14.131,118.962,-6.313,0.567,0.689,-0.451
15.374,120.475,-7.303,0.359,0.932,-0.047
16.155,122.502,-7.405,0.116,0.954,0.277
16.409,124.599,-6.796,0.056,0.873,0.484
16.531,126.521,-5.731,0.081,0.754,0.652
16.711,128.181,-4.296,0.159,0.643,0.749
17.061,129.598,-2.646,0.284,0.58,0.763
17.687,130.876,-0.965,0.433,0.552,0.713
18.64,132.092,0.605,0.559,0.533,0.636
19.871,133.266,2.005,0.633,0.519,0.575
21.266,134.41,3.272,0.662,0.513,0.547
22.725,135.54,4.479,-0.454,-0.768,-0.452
12.667,118.517,-5.536,0.479,0.867,-0.139
13.647,120.289,-5.821,0.299,0.941,-0.158
14.259,122.213,-6.143,0.15,0.982,0.116
14.565,124.219,-5.907,0.094,0.916,0.39
14.757,126.093,-5.109,0.107,0.801,0.588
14.976,127.735,-3.904,0.172,0.692,0.701
15.329,129.152,-2.467,0.291,0.618,0.73
15.925,130.419,-0.97,0.452,0.57,0.687
16.85,131.586,0.437,0.609,0.525,0.595
18.098,132.662,1.656,0.715,0.485,0.503
19.564,133.657,2.688,0.767,0.462,0.445
21.137,134.605,3.602,0.784,0.454,0.422
22.747,135.537,4.468,-0.47,-0.749,-0.467
12.667,119.493,-5.536,0.311,0.948,0.066
13.274,121.345,-5.407,0.179,0.975,0.134
13.624,123.249,-5.146,0.109,0.942,0.319
13.836,125.088,-4.524,0.102,0.856,0.507
14.035,126.76,-3.534,0.145,0.757,0.637
14.318,128.239,-2.289,0.24,0.684,0.689
14.787,129.576,-0.942,0.39,0.633,0.669
15.548,130.813,0.364,0.566,0.58,0.586
16.653,131.946,1.508,0.711,0.518,0.476
18.043,132.958,2.437,0.794,0.468,0.388
19.595,133.872,3.197,0.829,0.443,0.341
21.218,134.738,3.863,0.84,0.435,0.324
22.861,135.59,4.496,-0.49,-0.727,-0.482
12.667,120.468,-5.536,0.202,0.957,0.207
13.044,122.258,-5.149,0.122,0.943,0.31
13.273,124.02,-4.569,0.094,0.886,0.453
13.449,125.677,-3.722,0.111,0.807,0.581
13.656,127.185,-2.637,0.17,0.735,0.657
13.974,128.559,-1.409,0.281,0.685,0.672
14.5,129.839,-0.153,0.443,0.642,0.626
15.326,131.039,1.016,0.62,0.581,0.527
16.484,132.124,2.0,0.756,0.508,0.413
17.897,133.073,2.773,0.829,0.452,0.329
19.448,133.919,3.388,0.859,0.425,0.285
21.055,134.714,3.921,0.868,0.417,0.269
22.679,135.495,4.424,-0.503,-0.705,-0.5
12.667,121.443,-5.536,0.136,0.941,0.311
12.911,123.133,-4.978,0.094,0.904,0.418
13.08,124.756,-4.227,0.09,0.84,0.534
13.242,126.266,-3.267,0.122,0.771,0.625
13.461,127.651,-2.144,0.193,0.716,0.671
13.809,128.938,-0.939,0.314,0.678,0.665
14.373,130.154,0.255,0.481,0.635,0.605
15.236,131.293,1.34,0.655,0.568,0.498
16.412,132.312,2.233,0.783,0.49,0.384
17.817,133.191,2.923,0.849,0.433,0.303
19.342,133.97,3.468,0.876,0.406,0.261
20.916,134.7,3.936,0.884,0.398,0.244
22.506,135.416,4.376,-0.516,-0.681,-0.52
12.667,122.419,-5.536,0.097,0.912,0.399
12.839,124.031,-4.83,0.081,0.862,0.501
12.982,125.555,-3.944,0.095,0.797,0.596
13.15,126.965,-2.89,0.142,0.737,0.661
13.401,128.268,-1.72,0.23,0.693,0.683
13.807,129.493,-0.512,0.368,0.658,0.657
14.457,130.655,0.65,0.543,0.608,0.579
15.416,131.729,1.672,0.709,0.532,0.462
16.669,132.669,2.488,0.818,0.456,0.352
18.115,133.474,3.11,0.869,0.407,0.281
19.653,134.194,3.607,0.889,0.386,0.246
21.226,134.876,4.042,0.895,0.38,0.234
22.81,135.548,4.456,-0.542,-0.649,-0.534
12.667,123.394,-5.536,0.076,0.874,0.48
12.796,124.879,-4.721,0.078,0.82,0.567
12.928,126.271,-3.759,0.104,0.76,0.641
13.104,127.562,-2.67,0.161,0.709,0.687
13.377,128.765,-1.504,0.258,0.671,0.695
13.814,129.905,-0.324,0.401,0.637,0.658
14.494,130.986,0.793,0.574,0.585,0.573
15.467,131.977,1.764,0.731,0.508,0.455
16.707,132.84,2.536,0.83,0.435,0.348
18.116,133.578,3.128,0.878,0.389,0.28
19.607,134.239,3.603,0.896,0.369,0.246
21.129,134.866,4.021,0.902,0.364,0.234
22.66,135.485,4.418,-0.556,-0.619,-0.554
12.667,124.37,-5.536,0.066,0.828,0.557
12.775,125.731,-4.62,0.081,0.775,0.627
12.908,127.005,-3.59,0.118,0.722,0.682
13.103,128.191,-2.469,0.185,0.678,0.711
13.408,129.306,-1.3,0.292,0.645,0.706
13.888,130.366,-0.14,0.442,0.61,0.658
14.614,131.367,0.94,0.613,0.553,0.564
15.619,132.275,1.867,0.757,0.477,0.445
16.863,133.059,2.598,0.845,0.41,0.344
18.252,133.733,3.163,0.886,0.369,0.28
19.708,134.34,3.624,0.902,0.353,0.249
21.192,134.92,4.033,0.907,0.348,0.237
22.683,135.493,4.423,-0.576,-0.583,-0.573
12.667,125.345,-5.536,0.064,0.773,0.631
12.769,126.582,-4.528,0.09,0.726,0.682
12.912,127.743,-3.438,0.137,0.681,0.72
13.131,128.832,-2.287,0.215,0.644,0.734
13.475,129.862,-1.114,0.332,0.614,0.716
14.005,130.844,0.031,0.487,0.576,0.656
14.783,131.764,1.079,0.653,0.516,0.554
15.825,132.588,1.963,0.784,0.443,0.435
17.078,133.295,2.659,0.859,0.382,0.34
18.452,133.906,3.202,0.894,0.348,0.283
19.881,134.464,3.654,0.907,0.335,0.254
21.332,135.0,4.061,0.911,0.332,0.245
22.789,135.531,4.452,-0.597,-0.544,-0.59
12.667,126.321,-5.536,0.067,0.712,0.699
12.77,127.42,-4.458,0.102,0.674,0.732
12.927,128.459,-3.33,0.157,0.638,0.754
13.17,129.443,-2.167,0.243,0.608,0.756
13.545,130.38,-1.001,0.367,0.58,0.728
14.111,131.274,0.12,0.523,0.54,0.659
14.916,132.106,1.136,0.681,0.48,0.553
15.965,132.846,1.987,0.8,0.411,0.436
17.198,133.48,2.659,0.868,0.357,0.345
18.537,134.031,3.192,0.899,0.328,0.291
19.923,134.537,3.64,0.911,0.317,0.264
21.328,135.026,4.048,0.915,0.314,0.254
22.739,135.511,4.44,-0.615,-0.501,-0.609
12.667,127.296,-5.536,0.075,0.645,0.76
12.779,128.262,-4.398,0.117,0.618,0.778
12.953,129.186,-3.235,0.181,0.59,0.787
13.224,130.069,-2.058,0.275,0.566,0.777
13.635,130.916,-0.895,0.405,0.539,0.739
14.24,131.722,0.209,0.56,0.499,0.661
15.077,132.467,1.197,0.71,0.44,0.55
16.138,133.124,2.019,0.818,0.376,0.436
17.361,133.686,2.67,0.877,0.329,0.35
18.673,134.178,3.194,0.904,0.305,0.299
20.026,134.635,3.642,0.915,0.296,0.274
21.395,135.078,4.052,0.918,0.294,0.265
22.769,135.518,4.449,-0.634,-0.454,-0.626
12.667,128.272,-5.536,0.085,0.574,0.815
12.792,129.116,-4.338,0.135,0.557,0.82
12.991,129.934,-3.132,0.208,0.537,0.817
13.297,130.724,-1.93,0.311,0.518,0.797
13.754,131.486,-0.759,0.449,0.492,0.746
14.414,132.208,0.337,0.605,0.45,0.657
15.302,132.869,1.303,0.745,0.391,0.54
16.396,133.443,2.096,0.839,0.334,0.429
17.63,133.935,2.727,0.889,0.296,0.35
18.936,134.37,3.242,0.911,0.278,0.305
20.276,134.779,3.691,0.919,0.272,0.284
21.629,135.179,4.109,0.922,0.271,0.277
22.985,135.579,4.515,-0.656,-0.402,-0.639
12.667,129.247,-5.536,0.097,0.498,0.861
12.805,129.957,-4.309,0.153,0.491,0.857
13.023,130.657,-3.088,0.231,0.48,0.846
13.352,131.341,-1.884,0.34,0.466,0.817
13.835,132.003,-0.72,0.478,0.442,0.759
14.516,132.631,0.359,0.631,0.402,0.664
15.413,133.202,1.303,0.763,0.347,0.545
16.498,133.697,2.079,0.849,0.297,0.437
17.706,134.12,2.701,0.894,0.265,0.361
18.98,134.496,3.214,0.915,0.25,0.317
20.283,134.852,3.666,0.923,0.245,0.296
21.598,135.201,4.087,0.926,0.245,0.288
22.916,135.551,4.498,-0.67,-0.348,-0.656
12.667,130.223,-5.536,0.109,0.42,0.901
12.815,130.792,-4.314,0.168,0.422,0.891
13.042,131.363,-3.106,0.248,0.418,0.874
13.378,131.93,-1.922,0.356,0.409,0.84
13.861,132.483,-0.783,0.491,0.389,0.779
14.526,133.01,0.272,0.638,0.354,0.684
15.39,133.49,1.198,0.765,0.307,0.567
16.426,133.906,1.965,0.849,0.262,0.458
17.576,134.261,2.586,0.895,0.233,0.381
18.79,134.576,3.102,0.917,0.219,0.334
20.033,134.873,3.555,0.926,0.215,0.31
21.288,135.165,3.975,0.929,0.215,0.3
22.548,135.456,4.383,-0.675,-0.291,-0.678
12.667,131.198,-5.536,0.12,0.338,0.933
12.825,131.644,-4.307,0.182,0.347,0.92
13.065,132.101,-3.095,0.266,0.35,0.898
13.416,132.561,-1.912,0.376,0.345,0.86
13.911,133.016,-0.78,0.511,0.33,0.794
14.584,133.449,0.264,0.655,0.299,0.694
15.446,133.842,1.178,0.776,0.257,0.576
16.467,134.18,1.935,0.857,0.218,0.468
17.595,134.467,2.55,0.9,0.194,0.391
18.781,134.723,3.065,0.921,0.183,0.344
19.994,134.964,3.519,0.93,0.181,0.32
21.219,135.202,3.94,0.933,0.181,0.31
22.449,135.441,4.349,-0.685,-0.229,-0.692
12.667,132.174,-5.536,0.13,0.254,0.958
12.838,132.508,-4.277,0.196,0.269,0.943
13.096,132.861,-3.039,0.285,0.277,0.918
13.47,133.224,-1.834,0.401,0.277,0.873
13.996,133.588,-0.688,0.54,0.264,0.799
14.705,133.934,0.36,0.684,0.235,0.691
15.602,134.243,1.267,0.799,0.198,0.567
16.651,134.503,2.011,0.872,0.167,0.461
17.795,134.722,2.616,0.91,0.149,0.388
18.99,134.917,3.126,0.927,0.143,0.346
20.208,135.105,3.58,0.935,0.143,0.324
21.436,135.293,4.006,0.938,0.144,0.316
22.668,135.482,4.421,-0.699,-0.163,-0.696
12.667,133.149,-5.536,0.137,0.169,0.976
12.844,133.368,-4.268,0.204,0.188,0.961
13.11,133.612,-3.021,0.295,0.201,0.934
13.493,133.873,-1.808,0.413,0.205,0.887
14.029,134.139,-0.657,0.554,0.197,0.809
14.748,134.394,0.392,0.698,0.172,0.696
15.652,134.618,1.294,0.811,0.141,0.568
16.704,134.8,2.032,0.88,0.116,0.461
17.846,134.95,2.63,0.915,0.103,0.389
19.035,135.085,3.136,0.932,0.101,0.348
20.245,135.215,3.588,0.939,0.102,0.327
21.465,135.348,4.014,0.942,0.104,0.319
22.689,135.484,4.428,-0.706,-0.096,-0.702
12.667,134.124,-5.536,0.14,0.083,0.987
12.849,134.232,-4.25,0.209,0.105,0.972
13.12,134.369,-2.984,0.301,0.123,0.946
13.513,134.529,-1.752,0.422,0.131,0.897
14.062,134.7,-0.585,0.567,0.126,0.814
14.801,134.864,0.474,0.713,0.106,0.693
15.728,135.002,1.376,0.825,0.08,0.56
16.802,135.106,2.105,0.89,0.062,0.453
17.96,135.187,2.695,0.922,0.055,0.383
19.162,135.259,3.194,0.937,0.056,0.344
20.383,135.333,3.642,0.944,0.06,0.325
21.613,135.411,4.066,0.946,0.063,0.318
22.845,135.492,4.481,-0.712,-0.027,-0.701
12.667,135.1,-5.536,0.137,-0.003,0.991
12.844,135.096,-4.257,0.205,0.022,0.979
13.108,135.124,-2.994,0.295,0.043,0.954
13.489,135.18,-1.762,0.415,0.056,0.908
14.024,135.251,-0.59,0.561,0.055,0.826
14.747,135.323,0.475,0.71,0.041,0.703
15.662,135.375,1.381,0.825,0.021,0.565
16.726,135.402,2.11,0.892,0.009,0.452
17.877,135.414,2.694,0.925,0.007,0.381
19.071,135.423,3.185,0.94,0.01,0.34
20.285,135.436,3.625,0.947,0.016,0.321
21.508,135.456,4.039,0.95,0.019,0.313
22.734,135.481,4.443,-0.71,0.042,-0.703
12.667,136.075,-5.536,0.13,-0.087,0.988
12.833,135.964,-4.273,0.194,-0.061,0.979
13.081,135.887,-3.022,0.28,-0.037,0.959
13.439,135.839,-1.795,0.395,-0.02,0.918
13.943,135.813,-0.622,0.54,-0.016,0.841
14.633,135.793,0.452,0.695,-0.025,0.718
15.52,135.761,1.369,0.818,-0.039,0.574
16.565,135.711,2.102,0.89,-0.045,0.454
17.702,135.653,2.682,0.925,-0.043,0.377
18.885,135.598,3.164,0.942,-0.037,0.333
20.09,135.552,3.59,0.95,-0.03,0.311
21.305,135.514,3.988,0.953,-0.025,0.303
22.523,135.482,4.375,-0.701,0.112,-0.705
12.667,137.051,-5.536,0.12,-0.167,0.979
12.823,136.832,-4.258,0.18,-0.14,0.974
13.058,136.65,-2.986,0.263,-0.114,0.958
13.401,136.501,-1.735,0.378,-0.094,0.921
13.894,136.379,-0.533,0.528,-0.087,0.845
14.583,136.265,0.569,0.693,-0.093,0.715
15.487,136.144,1.501,0.823,-0.101,0.559
16.561,136.012,2.23,0.896,-0.099,0.433
17.73,135.883,2.795,0.93,-0.091,0.355
18.946,135.764,3.259,0.946,-0.081,0.313
20.182,135.658,3.668,0.953,-0.072,0.293
21.427,135.564,4.05,0.956,-0.067,0.285
22.676,135.477,4.423,-0.698,0.178,-0.694
12.667,138.026,-5.536,0.105,-0.244,0.964
12.808,137.698,-4.24,0.161,-0.215,0.963
13.025,137.41,-2.945,0.24,-0.187,0.953
13.347,137.159,-1.664,0.352,-0.165,0.922
13.819,136.938,-0.426,0.507,-0.156,0.848
14.499,136.729,0.713,0.686,-0.16,0.71
15.419,136.515,1.665,0.827,-0.161,0.539
16.529,136.299,2.389,0.902,-0.151,0.405
17.741,136.096,2.934,0.935,-0.136,0.327
18.999,135.913,3.373,0.95,-0.122,0.286
20.276,135.749,3.759,0.957,-0.111,0.268
21.563,135.599,4.119,0.959,-0.106,0.261
22.853,135.456,4.47,-0.692,0.241,-0.68
12.667,139.002,-5.536,0.087,-0.316,0.945
12.786,138.569,-4.242,0.137,-0.286,0.948
12.974,138.177,-2.942,0.206,-0.256,0.944
13.256,137.827,-1.649,0.308,-0.231,0.923
13.679,137.51,-0.385,0.46,-0.221,0.86
14.308,137.209,0.791,0.653,-0.224,0.723
15.201,136.903,1.779,0.815,-0.22,0.536
16.316,136.602,2.512,0.9,-0.202,0.385
17.549,136.326,3.039,0.937,-0.18,0.3
18.832,136.08,3.45,0.953,-0.162,0.257
20.138,135.858,3.802,0.96,-0.148,0.238
21.453,135.655,4.128,0.963,-0.142,0.231
22.772,135.461,4.444,-0.678,0.303,-0.67
12.667,139.977,-5.536,0.068,-0.383,0.921
12.762,139.439,-4.241,0.11,-0.352,0.93
12.918,138.944,-2.934,0.169,-0.32,0.932
13.155,138.495,-1.624,0.258,-0.292,0.921
13.518,138.085,-0.33,0.4,-0.279,0.873
14.079,137.693,0.896,0.607,-0.285,0.742
14.929,137.293,1.936,0.798,-0.279,0.534
16.048,136.903,2.684,0.899,-0.25,0.36
17.31,136.552,3.19,0.939,-0.22,0.265
18.63,136.243,3.562,0.956,-0.196,0.219
19.973,135.967,3.871,0.963,-0.18,0.199
21.328,135.714,4.151,0.966,-0.172,0.192
22.686,135.472,4.422,-0.661,0.362,-0.657
12.667,140.953,-5.536,0.049,-0.445,0.894
12.738,140.304,-4.231,0.084,-0.413,0.907
12.86,139.701,-2.908,0.131,-0.377,0.917
13.051,139.151,-1.57,0.203,-0.345,0.916
13.347,138.648,-0.233,0.328,-0.329,0.886
13.825,138.168,1.057,0.544,-0.341,0.767
14.615,137.673,2.172,0.777,-0.337,0.532
15.744,137.183,2.944,0.899,-0.295,0.325
17.054,136.754,3.417,0.943,-0.253,0.218
18.429,136.384,3.735,0.96,-0.223,0.171
19.829,136.059,3.984,0.967,-0.204,0.151
21.241,135.761,4.205,0.97,-0.195,0.144
22.657,135.477,4.415,-0.644,0.416,-0.642
12.667,141.928,-5.536,0.03,-0.502,0.864
12.712,141.173,-4.237,0.057,-0.47,0.881
12.798,140.468,-2.913,0.092,-0.431,0.898
12.935,139.82,-1.565,0.141,-0.392,0.909
13.147,139.231,-0.199,0.23,-0.366,0.902
13.493,138.681,1.155,0.422,-0.383,0.822
14.125,138.109,2.385,0.713,-0.401,0.576
15.188,137.511,3.245,0.888,-0.346,0.303
16.519,136.992,3.7,0.944,-0.285,0.168
17.937,136.564,3.951,0.963,-0.246,0.113
19.384,136.195,4.121,0.971,-0.221,0.092
20.843,135.863,4.259,0.975,-0.208,0.084
22.307,135.55,4.385,-0.615,0.469,-0.633
12.667,142.904,-5.536,0.014,-0.554,0.832
12.689,141.988,-4.162,0.035,-0.519,0.854
12.747,141.132,-2.751,0.059,-0.474,0.879
12.845,140.35,-1.301,0.088,-0.422,0.902
12.991,139.654,0.189,0.142,-0.382,0.913
13.226,139.023,1.697,0.314,-0.412,0.855
13.741,138.346,3.102,0.695,-0.468,0.546
14.873,137.585,3.99,0.911,-0.367,0.187
16.374,136.981,4.297,0.958,-0.282,0.055
17.955,136.517,4.388,0.972,-0.236,0.015
19.559,136.127,4.413,0.978,-0.211,0.002
21.173,135.779,4.416,0.98,-0.199,-0.002
22.791,135.45,4.414,-0.613,0.511,-0.603
12.667,143.879,-5.536,-0.002,-0.605,0.796
12.663,143.019,-4.405,0.01,-0.578,0.816
12.678,142.198,-3.246,0.021,-0.542,0.84
12.708,141.428,-2.052,0.028,-0.496,0.868
12.748,140.724,-0.819,0.025,-0.438,0.899
12.784,140.102,0.457,0.005,-0.371,0.929
12.79,139.576,1.777,-0.048,-0.311,0.949
12.722,139.134,3.125,-0.187,-0.301,0.935
12.457,138.707,4.45,-0.486,-0.312,0.817
11.771,138.266,5.605,-0.589,-0.308,0.747
10.934,137.828,6.666,-0.517,-0.303,0.8
10.2,137.397,7.803,-0.463,-0.272,0.843
9.542,137.01,9.001,0.186,0.467,-0.865
12.667,144.854,-5.536,-0.015,-0.652,0.758
12.648,144.073,-4.627,-0.008,-0.631,0.775
12.639,143.316,-3.697,-0.002,-0.606,0.796
12.637,142.59,-2.743,-0.001,-0.572,0.82
12.636,141.904,-1.76,-0.008,-0.528,0.849
12.627,141.271,-0.741,-0.033,-0.468,0.883
12.588,140.71,0.317,-0.093,-0.381,0.92
12.477,140.253,1.419,-0.231,-0.234,0.944
12.2,139.973,2.548,-0.501,0.066,0.863
11.607,140.051,3.569,-0.685,0.528,0.501
10.799,140.673,4.159,-0.575,0.806,0.144
10.112,141.636,4.331,-0.478,0.878,0.027
9.539,142.688,4.364,0.288,0.29,-0.913
12.667,145.83,-5.536,-0.025,-0.692,0.721
12.638,145.029,-4.702,-0.02,-0.675,0.738
12.615,144.249,-3.849,-0.016,-0.653,0.757
12.597,143.494,-2.973,-0.018,-0.624,0.781
12.576,142.772,-2.069,-0.028,-0.585,0.81
12.544,142.095,-1.132,-0.055,-0.53,0.846
12.48,141.482,-0.154,-0.116,-0.446,0.887
12.346,140.966,0.871,-0.244,-0.298,0.923
12.065,140.623,1.935,-0.468,-0.008,0.884
11.528,140.613,2.947,-0.643,0.415,0.644
10.794,141.088,3.683,-0.611,0.7,0.37
10.09,141.895,4.109,-0.551,0.793,0.259
9.452,142.812,4.409,0.287,0.357,-0.889
12.667,146.805,-5.536,-0.032,-0.728,0.685
12.63,145.977,-4.757,-0.028,-0.713,0.7
12.598,145.166,-3.96,-0.026,-0.695,0.719
12.568,144.375,-3.142,-0.029,-0.67,0.742
12.535,143.613,-2.298,-0.039,-0.637,0.77
12.491,142.889,-1.421,-0.065,-0.589,0.806
12.416,142.219,-0.505,-0.121,-0.514,0.849
12.279,141.634,0.46,-0.231,-0.384,0.894
12.017,141.198,1.475,-0.422,-0.135,0.896
11.54,141.046,2.488,-0.606,0.253,0.754
10.856,141.331,3.338,-0.629,0.567,0.533
10.143,141.973,3.942,-0.589,0.69,0.42
9.473,142.759,4.419,0.275,0.433,-0.858
12.667,147.781,-5.536,-0.038,-0.759,0.65
12.624,146.92,-4.8,-0.035,-0.747,0.664
12.584,146.074,-4.047,-0.033,-0.731,0.681
12.547,145.245,-3.275,-0.036,-0.711,0.703
12.506,144.44,-2.479,-0.045,-0.682,0.73
12.455,143.667,-1.652,-0.068,-0.642,0.764
12.377,142.94,-0.786,-0.117,-0.579,0.807
12.245,142.284,0.128,-0.21,-0.47,0.857
12.007,141.753,1.098,-0.375,-0.263,0.889
11.584,141.456,2.101,-0.563,0.08,0.822
10.951,141.546,3.025,-0.633,0.416,0.653
10.236,142.016,3.762,-0.612,0.579,0.538
9.543,142.672,4.372,0.259,0.505,-0.823
12.667,148.756,-5.536,-0.042,-0.787,0.616
12.617,147.84,-4.818,-0.039,-0.776,0.63
12.572,146.936,-4.084,-0.038,-0.762,0.646
12.527,146.048,-3.331,-0.041,-0.744,0.667
12.48,145.181,-2.555,-0.05,-0.719,0.693
12.421,144.342,-1.747,-0.072,-0.683,0.727
12.338,143.547,-0.901,-0.118,-0.626,0.771
12.201,142.818,-0.003,-0.207,-0.526,0.825
11.96,142.206,0.958,-0.364,-0.334,0.87
11.538,141.819,1.967,-0.549,-0.007,0.836
10.903,141.811,2.933,-0.631,0.323,0.706
10.171,142.186,3.753,-0.623,0.486,0.613
9.445,142.752,4.467,0.255,0.553,-0.793
12.667,149.732,-5.536,-0.046,-0.81,0.584
12.612,148.766,-4.84,-0.043,-0.801,0.597
12.561,147.812,-4.129,-0.042,-0.79,0.612
12.511,146.871,-3.399,-0.044,-0.774,0.631
12.459,145.948,-2.647,-0.051,-0.753,0.656
12.398,145.051,-1.866,-0.07,-0.722,0.688
12.314,144.19,-1.046,-0.111,-0.674,0.731
12.183,143.388,-0.175,-0.19,-0.588,0.786
11.957,142.688,0.76,-0.332,-0.424,0.843
11.563,142.184,1.761,-0.516,-0.131,0.846
10.952,142.029,2.762,-0.624,0.202,0.755
10.211,142.268,3.659,-0.632,0.381,0.675
9.459,142.722,4.463,0.243,0.605,-0.758
12.667,150.707,-5.536,-0.048,-0.831,0.554
12.608,149.696,-4.862,-0.046,-0.823,0.566
12.552,148.695,-4.173,-0.044,-0.813,0.58
12.499,147.705,-3.467,-0.045,-0.801,0.597
12.443,146.731,-2.741,-0.051,-0.783,0.62
12.381,145.778,-1.986,-0.067,-0.757,0.65
12.299,144.857,-1.196,-0.101,-0.717,0.69
12.177,143.985,-0.358,-0.168,-0.648,0.743
11.973,143.197,0.546,-0.292,-0.515,0.806
11.619,142.573,1.524,-0.471,-0.263,0.842
11.049,142.254,2.542,-0.607,0.065,0.792
10.313,142.332,3.501,-0.636,0.276,0.72
9.54,142.668,4.377,-0.017,-0.99,-0.14
8.313,72.671,-5.536,0.016,0.847,0.531
8.332,73.665,-4.913,0.014,0.84,0.543
8.348,74.651,-4.275,0.012,0.83,0.557
8.362,75.626,-3.621,0.012,0.817,0.576
8.376,76.585,-2.945,0.013,0.799,0.601
8.392,77.524,-2.24,0.02,0.772,0.635
8.415,78.43,-1.495,0.036,0.729,0.684
8.458,79.285,-0.692,0.069,0.655,0.753
8.538,80.053,0.191,0.129,0.52,0.844
8.69,80.663,1.18,0.212,0.295,0.932
8.938,81.008,2.27,0.274,0.035,0.961
9.258,81.049,3.395,0.289,-0.114,0.95
9.598,80.915,4.511,-0.103,-0.583,-0.806
8.313,73.646,-5.536,0.013,0.828,0.56
8.328,74.583,-4.902,0.011,0.82,0.573
8.34,75.51,-4.254,0.009,0.808,0.589
8.35,76.424,-3.588,0.009,0.793,0.609
8.361,77.322,-2.899,0.012,0.772,0.636
8.374,78.194,-2.18,0.02,0.739,0.673
8.396,79.03,-1.419,0.039,0.688,0.725
8.44,79.808,-0.599,0.077,0.6,0.796
8.527,80.487,0.301,0.143,0.444,0.885
8.689,80.987,1.299,0.228,0.196,0.954
8.946,81.208,2.374,0.284,-0.066,0.957
9.266,81.133,3.454,0.294,-0.205,0.933
9.599,80.901,4.51,-0.108,-0.527,-0.843
8.313,74.622,-5.536,0.009,0.806,0.591
8.324,75.494,-4.896,0.007,0.796,0.605
8.331,76.356,-4.242,0.006,0.783,0.622
8.337,77.203,-3.569,0.006,0.766,0.643
8.343,78.031,-2.873,0.009,0.741,0.672
8.353,78.833,-2.146,0.018,0.704,0.71
8.373,79.594,-1.378,0.039,0.646,0.763
8.415,80.292,-0.553,0.08,0.547,0.833
8.502,80.884,0.347,0.15,0.377,0.914
8.664,81.291,1.334,0.237,0.115,0.965
8.92,81.414,2.373,0.29,-0.151,0.945
9.233,81.251,3.394,0.299,-0.295,0.908
9.557,80.932,4.375,-0.11,-0.471,-0.875
8.313,75.597,-5.536,0.005,0.781,0.625
8.319,76.433,-4.868,0.003,0.769,0.639
8.322,77.255,-4.183,0.001,0.753,0.658
8.323,78.061,-3.479,0.001,0.731,0.682
8.324,78.843,-2.75,0.006,0.701,0.713
8.33,79.593,-1.986,0.018,0.655,0.755
8.35,80.294,-1.178,0.045,0.581,0.812
8.398,80.915,-0.309,0.096,0.456,0.885
8.5,81.403,0.636,0.179,0.241,0.954
8.691,81.661,1.653,0.266,-0.057,0.962
8.975,81.6,2.678,0.303,-0.304,0.903
9.299,81.275,3.643,0.303,-0.409,0.861
9.624,80.838,4.564,-0.119,-0.386,-0.915
8.313,76.572,-5.536,0.0,0.752,0.659
8.313,77.346,-4.858,-0.003,0.738,0.675
8.31,78.105,-4.164,-0.005,0.72,0.694
8.305,78.845,-3.45,-0.004,0.696,0.718
8.301,79.561,-2.712,0.0,0.661,0.75
8.301,80.241,-1.94,0.013,0.611,0.792
8.314,80.869,-1.126,0.04,0.532,0.846
8.355,81.416,-0.257,0.094,0.398,0.912
8.451,81.825,0.68,0.181,0.172,0.968
8.637,82.001,1.672,0.273,-0.138,0.952
8.916,81.86,2.647,0.311,-0.391,0.866
9.235,81.458,3.536,0.309,-0.507,0.805
9.553,80.936,4.363,-0.118,-0.322,-0.94
8.313,77.548,-5.536,-0.007,0.719,0.695
8.307,78.269,-4.839,-0.01,0.703,0.711
8.297,78.974,-4.126,-0.012,0.683,0.731
8.284,79.659,-3.393,-0.013,0.655,0.755
8.272,80.316,-2.636,-0.008,0.617,0.787
8.264,80.934,-1.847,0.004,0.561,0.828
8.268,81.497,-1.017,0.033,0.475,0.88
8.301,81.973,-0.135,0.09,0.33,0.94
8.391,82.303,0.805,0.186,0.086,0.979
8.577,82.388,1.783,0.285,-0.24,0.928
8.862,82.148,2.708,0.322,-0.495,0.807
9.184,81.653,3.516,0.316,-0.61,0.727
9.501,81.042,4.245,-0.117,-0.248,-0.962
8.313,78.523,-5.536,-0.014,0.682,0.731
8.299,79.219,-4.79,-0.019,0.663,0.748
8.279,79.895,-4.028,-0.022,0.639,0.769
8.257,80.547,-3.244,-0.024,0.607,0.795
8.233,81.165,-2.433,-0.02,0.562,0.827
8.213,81.738,-1.59,-0.006,0.495,0.869
8.207,82.242,-0.705,0.029,0.391,0.92
8.236,82.641,0.232,0.101,0.213,0.972
8.339,82.858,1.22,0.221,-0.089,0.971
8.563,82.768,2.204,0.321,-0.438,0.84
8.888,82.323,3.056,0.336,-0.648,0.684
9.23,81.664,3.752,0.321,-0.725,0.609
9.558,80.925,4.373,-0.123,-0.141,-0.982
8.313,79.499,-5.536,-0.024,0.641,0.767
8.288,80.169,-4.733,-0.03,0.619,0.785
8.256,80.818,-3.912,-0.036,0.592,0.805
8.219,81.437,-3.069,-0.039,0.555,0.831
8.178,82.017,-2.2,-0.037,0.503,0.863
8.139,82.543,-1.296,-0.025,0.429,0.903
8.113,82.992,-0.352,0.012,0.311,0.95
8.126,83.317,0.641,0.101,0.103,0.99
8.231,83.424,1.673,0.257,-0.259,0.931
8.497,83.156,2.638,0.359,-0.611,0.706
8.87,82.52,3.373,0.353,-0.772,0.529
9.24,81.713,3.926,0.331,-0.823,0.462
9.586,80.852,4.409,-0.127,-0.038,-0.991
8.313,80.474,-5.536,-0.036,0.597,0.802
8.276,81.099,-4.696,-0.044,0.573,0.818
